11.835,-1.3003,-1.1108,7,19
11.959,-1.3139,-0.84126,15,20
12.314,-1.353,-0.57773,14,21
12.267,-1.3478,-0.28651,18,22
13.123,-1.4418,0,1,23
4.6224,-0.50786,-0.87614,0,15
5.5636,-0.628,-0.78688,5,17
12.114,-1.3674,-1.4256,8,18
12.032,-1.3581,-0.8467,24,20
12.31,-1.3895,-0.28763,12,22
13.433,-1.5162,0,2,23
13.188,-1.4886,1.8652,6,29
4.6326,-0.5229,-0.87836,0,15
5.5206,-0.63875,-0.78104,2,17
11.692,-1.3528,-1.3764,19,18
11.885,-1.3751,-1.1162,16,19
11.957,-1.3835,-0.84168,13,20
12.682,-1.4673,-0.59534,11,21
12.338,-1.4276,-0.28837,25,22
13.166,-1.5233,1.8627,6,29
4.6408,-0.53696,-0.88021,0,15
5.4971,-0.6516,-0.77798,0,17
13.895,-1.6471,-1.6363,7,18
12.005,-1.4231,-1.1279,21,19
12.131,-1.438,-0.85424,18,20
12.283,-1.4559,-0.28716,48,22
13.424,-1.5912,0,2,23
0.48894,-0.057957,-0.11666,0,13
5.4775,-0.66576,-0.77547,0,17
11.867,-1.4423,-1.1153,1,19
11.978,-1.4559,-0.84377,11,20
11.786,-1.4326,-0.55369,11,21
12.64,-1.5363,-0.29561,12,22
14.285,-1.7362,0,0,23
5.5166,-0.68811,-0.78132,0,17
11.589,-1.4455,-1.3657,26,18
11.91,-1.4856,-0.83931,14,20
11.879,-1.4817,-0.55826,16,21
12.484,-1.5572,-0.29208,4,22
15.022,-1.8737,0,0,23
4.6729,-0.58287,-0.88725,0,15
5.5148,-0.70255,-0.78132,0,17
12.55,-1.5987,-1.1803,18,19
11.825,-1.5065,-0.83359,11,20
11.673,-1.487,-0.54875,13,21
15.031,-1.9148,0,0,23
5.544,-0.72397,-0.78577,0,17
12.146,-1.5861,-0.28438,8,22
23.653,-3.0888,0,4,23
0.48822,-0.063756,-0.11666,0,13
5.5105,-0.73526,-0.78132,0,17
12.033,-1.6055,-1.1325,14,19
11.563,-1.5428,-0.81573,13,20
11.672,-1.5573,-0.54913,14,21
12.67,-1.6906,-0.29677,7,22
13.71,-1.8294,0,1,23
0.48804,-0.065119,-0.11666,0,13
5.4926,-0.74947,-0.77909,0,17
11.656,-1.5904,-1.3757,56,18
11.907,-1.6248,-1.1212,6,19
11.44,-1.561,-0.80736,30,20
11.721,-1.5993,-0.55164,35,21
12.372,-1.6882,-0.2899,11,22
23.736,-3.2388,0,4,23
0.48785,-0.066567,-0.11666,0,13
5.5142,-0.76712,-0.78243,0,17
11.667,-1.6231,-1.3775,13,18
11.527,-1.6035,-0.81378,21,20
12.173,-1.6935,-0.57316,15,21
13.607,-1.893,0,3,23
25.707,-3.5763,1.8149,5,26
5.5353,-0.78779,-0.78577,0,17
11.749,-1.6721,-1.3878,4,18
11.431,-1.6268,-1.0772,13,19
11.606,-1.6518,-0.81978,13,20
11.822,-1.6825,-0.55686,20,21
12.368,-1.7602,-0.29004,6,22
13.736,-1.9549,0,1,23
25.552,-3.6365,1.8047,5,26
5.5201,-0.80136,-0.6523,2,18
11.795,-1.7122,-1.1119,2,19
11.473,-1.6656,-0.81071,13,20
11.793,-1.7121,-0.55574,14,21
13.251,-1.9237,-0.31089,9,22
13.633,-1.9791,0,3,23
24.356,-3.5358,1.1477,5,25
24.124,-3.5021,1.7046,4,26
5.4822,-0.81345,-0.64812,0,18
12.281,-1.8223,-0.86819,21,20
13.605,-2.0187,0,2,23
13.077,-1.9404,0.30694,1,24
24.107,-3.5769,1.7042,4,26
12.657,-1.9141,-0.29719,7,22
13.028,-1.9703,0.30592,3,24
24.37,-3.6856,1.1494,5,25
5.5208,-0.85071,-0.65323,0,18
11.785,-1.816,-1.1125,5,19
12.125,-1.8684,-0.85787,14,20
12.287,-1.8934,-0.57978,12,21
12.876,-1.9841,0,5,23
13.05,-2.011,0.30657,3,24
24.046,-3.7053,1.1346,5,25
24.076,-3.71,1.7035,4,26
5.5223,-0.86674,-0.6537,0,18
11.956,-1.8765,-0.84629,29,20
12.245,-1.9218,-0.57801,2,21
12.541,-1.9684,-0.29473,4,22
13.123,-2.0598,0,4,23
23.986,-3.7647,1.1323,5,25
24.086,-3.7803,1.7048,4,26
5.4764,-0.87718,-0.64859,0,18
12.215,-1.9565,-1.1541,14,19
11.532,-1.8472,-0.81671,17,20
13.085,-2.0959,0,5,23
13.105,-2.0991,0.30815,5,24
24.442,-3.9149,1.1543,6,25
24.45,-3.9162,1.7315,4,26
5.4875,-0.89566,-0.65021,0,18
11.592,-1.892,-1.0958,13,19
11.543,-1.884,-0.81782,13,20
13.199,-2.1544,0,1,23
5.5869,-0.92791,-0.66229,0,18
24.665,-4.0965,1.166,6,25
24.874,-4.1312,1.7632,4,26
12,-2.0296,-0.85103,13,20
12.128,-2.0514,-0.57363,13,21
12.592,-2.1297,-0.29649,10,22
13.859,-2.3441,0,1,23
23.585,-3.989,0.55534,4,24
24.832,-4.2,1.7611,4,26
11.288,-1.9417,-1.0686,2,19
11.473,-1.9735,-0.81406,6,20
12.048,-2.0724,-0.57009,26,21
12.584,-2.1645,-0.29645,7,22
13.701,-2.3567,0,2,23
12.931,-2.2242,0.30462,3,24
24.056,-4.1379,1.1383,5,25
24.051,-4.1371,1.7065,4,26
11.506,-2.0164,-0.81685,8,20
11.984,-2.1002,-0.56739,22,21
12.433,-2.1789,-0.29306,14,22
14.296,-2.5054,0,0,23
25.029,-4.3862,1.7768,5,26
11.303,-2.0093,-1.071,1,19
12.089,-2.149,-0.5726,13,21
12.422,-2.2082,-0.29292,14,22
22.568,-4.0119,0,3,23
12.979,-2.3072,0.30606,1,24
23.921,-4.2523,1.133,5,25
5.4829,-0.99246,-0.65161,0,18
5.5003,-0.99562,-0.5215,2,19
11.542,-2.0892,-0.8202,14,20
12.45,-2.2536,-0.29376,6,22
12.857,-2.3272,0.60931,1,25
5.4528,-1.0027,-0.64835,0,18
5.4897,-1.0095,-0.52075,1,19
11.544,-2.1228,-0.82075,14,20
12.365,-2.2739,-0.2919,4,22
12.613,-2.3194,0,3,23
24.716,-4.5452,1.7573,4,26
24.299,-4.4685,4.0592,2,30
11.475,-2.1433,-0.81629,8,20
12.372,-2.3109,0,3,23
24.061,-4.4943,0.56829,4,24
12.889,-2.4074,0.61145,1,25
24.594,-4.5937,1.7495,4,26
23.057,-4.3066,3.2965,3,29
24.247,-4.5289,4.6473,2,31
11.421,-2.1704,-0.81294,8,20
11.886,-2.2588,-0.56422,2,21
12.436,-2.3633,-0.2939,7,22
23.857,-4.5336,0.56379,13,24
22.884,-4.3487,1.6288,3,26
24.615,-4.6777,2.3375,3,27
22.887,-4.3495,3.2742,6,29
24.31,-4.6197,4.6621,2,31
11.403,-2.2021,-0.8121,6,20
13.133,-2.5362,0,5,23
23.762,-4.5888,0.56189,4,24
22.972,-4.4363,1.6361,3,26
24.45,-4.7216,2.3232,3,27
22.915,-4.4252,3.28,3,29
23.313,-4.502,3.9009,2,30
24.269,-4.6866,4.6569,5,31
5.4953,-1.0761,-0.52242,0,19
12.33,-2.4146,-0.58593,14,21
13.091,-2.5637,0,3,23
24.596,-4.8165,1.1688,6,25
25.058,-4.9071,2.986,4,28
22.974,-4.4989,3.2901,3,29
23.32,-4.5668,3.9042,2,30
24.243,-4.7475,4.6544,5,31
5.5017,-1.0953,-0.52335,0,19
11.519,-2.2934,-0.82131,12,20
12.348,-2.4584,-0.58714,2,21
14.597,-2.9063,-0.34556,5,22
23.373,-4.6534,1.6665,4,26
24.344,-4.8468,2.3158,3,27
23.085,-4.596,2.7525,3,28
23.058,-4.5908,3.3042,3,29
23.229,-4.6247,3.8912,2,30
24.263,-4.8305,4.661,2,31
5.5236,-1.1178,-0.52577,0,19
11.354,-2.2975,-0.81001,16,20
12.491,-2.5278,-0.29589,12,22
23.212,-4.6972,1.656,4,26
24.335,-4.9245,2.3164,3,27
25.017,-5.0625,2.9848,4,28
23.506,-4.7567,3.3705,3,29
23.305,-4.716,3.9065,2,30
11.496,-2.3597,-0.82062,14,20
12.414,-2.5482,-0.29422,3,22
13.916,-2.8565,0,15,23
13.759,-2.8244,0.32611,14,24
23.097,-4.7411,1.0996,5,25
23.173,-4.7567,1.6542,4,26
22.801,-4.6805,2.1716,3,27
25.04,-5.1399,2.9893,4,28
23.322,-4.7873,3.346,3,29
23.396,-4.8025,3.924,2,30
23.477,-4.8191,4.5155,2,31
5.2716,-1.0975,-0.50236,0,19
11.329,-2.3585,-0.80918,8,20
12.353,-2.5718,-0.58844,16,21
12.821,-2.6691,0,9,23
13.307,-2.7703,0.31557,22,24
12.721,-2.6483,0.60596,2,25
23.117,-4.8125,1.6511,4,26
22.933,-4.7742,2.7393,3,28
23.929,-4.9815,3.4351,3,29
23.344,-4.8598,3.9175,5,30
23.434,-4.8786,4.5099,2,31
5.4088,-1.1418,-0.51574,0,19
11.439,-2.4148,-0.81755,5,20
12.501,-2.6389,-0.5958,27,21
12.849,-2.7124,0,2,23
13.737,-2.8999,0.32597,13,24
12.71,-2.683,0.60577,1,25
23.177,-4.8927,1.6564,4,26
22.841,-4.8217,2.1779,3,27
24.299,-5.1295,2.9042,4,28
23.769,-5.0177,3.4142,3,29
23.384,-4.9364,3.9266,5,30
23.476,-4.9558,4.5207,4,31
12.454,-2.6676,-0.59394,15,21
13.655,-2.9248,0.32421,11,24
23.11,-4.9502,1.6527,4,26
24.009,-5.1427,2.2907,3,27
24.07,-5.1558,2.8787,4,28
24.004,-5.1417,3.4501,3,29
23.375,-5.007,3.9275,2,30
23.508,-5.0353,4.5296,2,31
12.327,-2.6765,-0.58826,10,21
13.3,-2.8878,-0.31599,26,22
13.716,-2.9781,0,15,23
13.773,-2.9905,0.32723,12,24
23.006,-4.9952,1.6463,4,26
23.821,-5.1721,2.2742,3,27
23.765,-5.1598,2.8438,3,28
24.495,-5.3184,3.5227,3,29
24.164,-5.2464,4.0624,3,30
23.703,-5.1464,4.5699,2,31
12.622,-2.782,-0.30007,7,22
13.942,-3.0729,0.33145,7,24
22.919,-5.0516,1.6411,4,26
22.965,-5.0617,2.1939,3,27
23.104,-5.0925,2.7667,3,28
24.149,-5.3228,3.4754,3,29
23.781,-5.2416,4.0008,5,30
23.74,-5.2327,4.5803,2,31
12.488,-2.7867,-0.8947,4,20
12.259,-2.7357,-0.58574,4,21
14.008,-3.1259,0.33321,4,24
23.574,-5.2607,1.1264,5,25
22.962,-5.1241,1.6451,4,26
26.088,-5.8218,2.4938,4,27
23.436,-5.2299,3.3747,3,29
23.474,-5.2385,3.9515,8,30
24.099,-5.3779,4.6521,2,31
13.377,-3.0294,0,2,23
22.12,-5.0093,0.52656,3,24
22.866,-5.1782,1.6394,3,26
22.904,-5.1869,2.1909,3,27
24.25,-5.4918,2.9077,4,28
24.012,-5.4378,3.4601,3,29
23.577,-5.3392,3.9716,2,30
12.957,-2.9723,-0.92957,4,20
12.4,-2.8446,-0.59329,17,21
14.763,-3.3865,0,2,23
21.986,-5.0435,1.5773,3,26
23.02,-5.2806,2.2034,3,27
23.109,-5.3011,3.3321,3,29
23.383,-5.364,3.9415,2,30
5.4511,-1.2665,-0.39133,1,20
11.588,-2.6924,-0.55481,4,21
13.224,-3.0725,-0.3152,7,22
21.903,-5.0888,0,3,23
22.22,-5.1626,0.52962,3,24
25.613,-5.951,1.2263,7,25
25.986,-6.0376,2.4889,4,27
23.144,-5.3773,3.3393,3,29
23.433,-5.4445,3.9525,2,30
25.094,-5.8304,4.8539,2,31
5.4471,-1.2836,-0.39133,2,20
12.792,-3.0145,-0.30513,14,22
12.735,-3.0011,0,1,23
25.257,-5.9519,0.60246,5,24
25.524,-6.0149,1.2229,6,25
22.076,-5.2023,1.586,3,26
26.099,-6.1502,2.5016,4,27
23.241,-5.4768,3.3557,3,29
24.515,-5.7771,4.7454,2,31
5.4123,-1.2924,-0.3891,0,20
11.494,-2.7446,-0.55108,14,21
12.711,-3.0352,-0.30341,12,22
12.713,-3.0356,0,2,23
23.625,-5.6414,1.1327,5,25
22.169,-5.2937,1.5938,3,26
24.209,-5.7809,2.3221,3,27
23.949,-5.7186,4.0452,8,30
24.313,-5.8055,4.7095,2,31
11.875,-2.8685,-0.56972,10,21
12.715,-3.0713,-0.30369,3,22
22.071,-5.3314,0.52716,3,24
23.558,-5.6906,1.1302,16,25
24.273,-5.8634,2.3297,3,27
23.441,-5.6624,2.8201,7,28
23.131,-5.5874,3.3443,3,29
23.985,-5.7938,4.054,5,30
25.161,-6.0778,4.8769,2,31
11.923,-2.9175,-0.57242,13,21
23.506,-5.7519,0.56184,9,24
23.549,-5.7624,1.1306,5,25
21.957,-5.3728,1.5807,3,26
23.578,-5.7695,3.4114,3,29
25.614,-6.2678,4.9684,3,31
11.805,-2.928,-0.5672,16,21
12.88,-3.1947,-0.3081,5,22
13.173,-3.2673,0,2,23
23.084,-5.7256,0.55218,13,24
25.173,-6.2437,1.2095,6,25
25.267,-6.267,1.8204,5,26
24.585,-6.0979,2.3632,4,27
23.979,-5.9475,4.6547,10,31
11.669,-2.9268,-0.56105,15,21
23.196,-5.8177,0,12,23
23.343,-5.8546,0.55873,4,24
25.042,-6.2809,1.204,6,25
23.561,-5.9094,1.6986,4,26
23.47,-5.8865,2.2575,10,27
22.676,-5.6874,3.2856,3,29
23.861,-5.9846,4.0417,11,30
24.003,-6.0203,4.6625,2,31
11.563,-2.9389,-0.55639,15,21
12.532,-3.1851,-0.30021,9,22
23.185,-5.8925,0,16,23
22.527,-5.7253,1.6253,7,26
23.438,-5.9568,2.2562,14,27
23.6,-5.9981,3.4223,3,29
11.544,-2.9662,-0.55583,38,21
12.289,-3.1577,-0.29459,13,22
23.303,-5.9875,0,12,23
23.316,-5.9909,0.55892,18,24
23.355,-6.0009,1.1245,22,25
21.702,-5.5763,1.5669,3,26
23.517,-6.0424,2.8394,15,28
23.784,-6.1112,4.0345,5,30
23.547,-6.0503,4.5807,2,31
11.512,-2.9944,-0.55472,14,21
12.205,-3.1745,-0.29278,5,22
13.855,-3.6038,0,0,23
21.753,-5.6582,1.5718,3,26
23.66,-6.1542,2.8589,3,28
23.494,-6.1109,3.4117,7,29
23.72,-6.1698,4.0267,5,30
11.685,-3.0763,-0.56347,8,21
12.199,-3.2117,-0.29287,5,22
24.969,-6.5738,0,5,23
25.192,-6.6326,0.60483,5,24
22.061,-5.8081,1.5952,3,26
23.45,-6.1738,2.2623,7,27
23.52,-6.1922,3.4181,14,29
23.57,-6.2055,4.0044,8,30
22.829,-6.0103,4.4477,2,31
4.9023,-1.3072,-0.35478,0,20
11.372,-3.0322,-0.54885,7,21
23.015,-6.1368,0.55302,4,24
22.009,-5.8686,1.5928,3,26
23.22,-6.1915,2.242,3,27
23.023,-6.139,3.3488,3,29
23.575,-6.2861,4.0086,11,30
23.683,-6.3149,4.6181,7,31
22.934,-6.1794,0.55144,17,24
21.921,-5.9065,1.5875,3,26
23.064,-6.2144,2.2285,6,27
22.838,-6.1537,3.886,2,30
22.987,-6.1938,4.4855,2,31
11.862,-3.2339,-0.57335,16,21
68.035,-18.548,0,55,23
22.918,-6.248,1.661,4,26
23.216,-6.3295,2.245,3,27
3.8749,-1.0564,-0.85369,0,14
23.475,-6.4,3.9976,5,30
22.971,-6.2625,4.4859,2,31
11.466,-3.1648,-0.55472,7,21
22.377,-6.1763,0.53895,4,24
23.402,-6.4591,1.6976,4,26
22.799,-6.2928,3.324,3,29
3.8508,-1.0628,-0.84911,0,14
23.12,-6.3813,3.9405,2,30
22.977,-6.342,4.491,2,31
13.997,-3.9055,-0.33739,8,22
13.68,-3.8168,0,2,23
22.599,-6.3055,2.1889,3,27
23.995,-6.6949,3.501,3,29
3.844,-1.0725,-0.84828,0,14
23.389,-6.526,3.9895,2,30
24.137,-6.7347,4.7214,2,31
12.379,-3.4913,-0.59981,5,21
13.653,-3.8507,0,1,23
22.705,-6.4034,1.1001,5,25
3.8128,-1.0753,-0.84204,1,14
23.249,-6.557,3.9687,2,30
24.306,-6.8549,4.758,2,31
12.317,-3.511,-0.59729,7,21
13.179,-3.7567,-0.31817,3,22
23.974,-6.8338,0.57878,5,24
23.559,-6.7154,3.4429,3,29
3.838,-1.094,-0.84828,0,14
24.458,-6.9717,4.7917,2,31
12,-3.459,-0.58239,3,21
11.612,-3.3472,-0.28057,0,22
22.146,-6.3838,0.5351,3,24
24.18,-6.9701,1.1735,6,25
19.601,-5.6501,2.3855,2,28
23.581,-6.7973,3.449,3,29
3.8253,-1.1027,-0.8462,1,14
23.693,-6.8296,4.0511,2,30
23.754,-6.8472,4.6577,2,31
11.592,-3.3789,-0.5631,5,21
11.612,-3.3845,-0.2808,3,22
13.537,-3.9456,0,0,23
22.596,-6.5862,1.0976,5,25
23.677,-6.9011,1.7245,4,26
23.669,-6.8988,3.4649,3,29
3.8183,-1.1129,-0.84537,3,14
23.911,-6.9694,4.0919,3,30
24.628,-7.1784,4.8332,2,31
11.869,-3.5001,-0.57708,4,21
11.582,-3.4153,-0.28034,4,22
13.586,-4.0062,0,2,23
22.343,-6.5888,1.0863,5,25
67.56,-19.922,6.5714,37,27
23.142,-6.8241,3.3908,3,29
3.8091,-1.1233,-0.84412,2,14
22.708,-6.6962,3.8896,2,30
12.057,-3.5898,-0.58667,1,21
11.527,-3.4319,-0.27923,1,22
24.37,-7.2557,0.59034,5,24
22.32,-6.6455,1.086,5,25
23.835,-7.0965,1.739,4,26
3.8193,-1.1371,-0.84703,0,14
22.598,-6.728,3.8737,2,30
23.454,-6.983,4.6107,2,31
11.794,-3.5496,-0.57437,1,21
24.285,-7.309,0.58881,5,24
24.212,-7.2869,1.1791,6,25
3.8215,-1.1501,-0.84828,0,14
22.901,-6.8923,3.9292,2,30
5.4899,-1.6523,-1.0802,2,15
23.544,-7.086,4.6325,2,31
11.641,-3.5389,-0.56739,0,21
13.521,-4.1106,-0.32811,3,22
20.337,-6.1828,0.49351,2,24
22.215,-6.7536,1.0828,10,25
23.979,-7.29,1.7526,4,26
23.457,-7.1314,2.2874,3,27
5.4777,-1.6653,-1.0787,3,15
23.49,-7.1414,4.6258,2,31
5.546,-1.7051,-0.95327,0,16
11.551,-3.5514,-0.56357,0,21
15.029,-4.6208,-0.36506,3,22
15.106,-4.6444,0,0,23
22.24,-6.8378,0.54021,4,24
19.74,-6.0689,0.96307,3,25
20.905,-6.4273,2.0405,2,27
23.649,-7.2708,2.8933,4,28
23.855,-7.3341,3.5074,3,29
22.735,-6.9898,3.9078,2,30
5.4687,-1.6813,-1.078,3,15
23.449,-7.2094,4.6221,5,31
5.5145,-1.7134,-0.94873,0,16
11.764,-3.655,-0.57447,0,21
12.617,-3.9202,-0.30675,3,22
15.031,-4.6702,0,0,23
24.418,-7.5866,0.59364,5,24
20.366,-6.3276,1.4913,2,26
23.358,-7.2574,2.282,3,27
4.0932,-1.2718,-0.91107,0,14
17.678,-5.4926,3.0414,2,30
5.4149,-1.6824,-1.0683,3,15
23.478,-7.2947,4.6321,2,31
5.4815,-1.7199,-0.94387,1,16
15.171,-4.76,0,0,23
22.016,-6.9077,0.53571,3,24
19.683,-6.176,0.96204,3,25
20.357,-6.3874,1.492,2,26
23.213,-7.2833,2.2697,7,27
17.089,-5.3618,2.0944,1,28
22.924,-7.1927,3.3766,3,29
4.0953,-1.2849,-0.91232,0,14
22.583,-7.0858,3.8886,5,30
5.262,-1.651,-1.0391,2,15
23.582,-7.3991,4.6566,2,31
5.36,-1.6982,-0.92376,1,16
13.621,-4.3156,-0.33173,0,22
15.121,-4.7909,0,2,23
20.023,-6.3441,0.48766,2,24
19.643,-6.2237,0.96092,3,25
20.298,-6.431,1.4889,2,26
23.437,-7.4257,2.2937,7,27
18.696,-5.9237,2.2935,1,28
4.1084,-1.3017,-0.91606,0,14
22.654,-7.1774,3.9042,2,30
5.2462,-1.6622,-1.0369,2,15
18.124,-5.7422,3.582,3,31
5.3587,-1.7153,-0.92441,1,16
15,-4.8015,-0.36566,1,22
15.276,-4.89,0,1,23
20.109,-6.437,0.49021,5,24
19.788,-6.3343,0.96894,3,25
20.332,-6.5082,1.4928,2,26
19.106,-6.1158,1.8716,4,27
22.75,-7.2824,3.3571,3,29
4.0915,-1.3097,-0.91315,0,14
17.396,-5.5684,3.0009,3,30
5.2693,-1.6867,-1.0424,2,15
5.3595,-1.7321,-0.92538,1,16
5.4954,-1.776,-0.81166,0,17
15.004,-4.8489,-0.36608,3,22
15.263,-4.9327,0,4,23
13.388,-4.3269,0.32667,1,24
19.575,-6.3262,0.95934,3,25
19.098,-6.1722,1.8725,2,27
4.099,-1.3247,-0.91564,1,14
22.537,-7.2835,3.8912,7,30
5.3094,-1.7159,-1.0513,3,15
23.549,-7.6107,4.6629,2,31
5.3641,-1.7501,-0.92701,2,16
5.4509,-1.7785,-0.80581,0,17
15.015,-4.8989,-0.36668,0,22
13.252,-4.3239,0,2,23
20.21,-6.5939,0.49355,2,24
19.5,-6.3623,0.95654,6,25
20.375,-6.6476,1.4986,5,26
17.415,-5.682,1.709,2,27
18.551,-6.0525,2.2819,1,28
4.0953,-1.3362,-0.91564,1,14
22.458,-7.3274,3.8812,2,30
5.2747,-1.721,-1.0454,3,15
23.655,-7.7179,4.6881,2,31
5.3398,-1.7608,-0.92376,2,16
5.4283,-1.79,-0.80331,1,17
15.111,-4.983,-0.36942,1,22
19.78,-6.5226,0,2,23
19.463,-6.4179,0.95571,3,25
17.386,-5.7329,1.7079,1,27
19.879,-6.5552,2.9418,2,29
4.0892,-1.3484,-0.91523,1,14
22.493,-7.4171,3.8912,2,30
5.2133,-1.7191,-1.0343,3,15
5.3252,-1.7735,-0.92214,2,16
5.3854,-1.7936,-0.79774,1,17
15.14,-5.0423,-0.37049,2,22
19.778,-6.5869,0,2,23
13.298,-4.4288,0.32542,2,24
18.468,-6.1505,0.90772,2,25
21.997,-7.3261,1.6213,3,26
18.871,-6.2847,1.8556,5,27
24.144,-8.041,3.5765,4,29
4.0648,-1.3537,-0.91065,1,14
20.018,-6.6669,3.4665,1,30
5.1149,-1.7035,-1.0157,3,15
19.872,-6.6184,3.9463,1,31
5.2943,-1.7787,-0.9176,2,16
5.33,-1.7906,-0.79022,2,17
19.389,-6.5138,0,1,23
13.224,-4.4426,0.32388,4,24
4.0969,-1.3764,-1.4604,0,9
18.389,-6.1778,0.90465,2,25
17.4,-5.8454,1.2835,1,26
17.319,-5.8185,1.7046,1,27
24.292,-8.161,3.6015,4,29
4.1076,-1.38,-0.92105,1,14
19.701,-6.6187,3.4146,1,30
5.0937,-1.7112,-1.0124,3,15
5.2495,-1.782,-0.91079,2,16
5.2962,-1.7978,-0.78605,2,17
19.384,-6.5799,0,1,23
13.212,-4.4848,0.32393,5,24
4.0728,-1.3825,-1.4533,0,9
19.943,-6.7699,0.98217,3,25
17.375,-5.8982,1.2831,1,26
17.252,-5.8563,1.6997,3,27
22.541,-7.6516,3.3454,6,29
4.0736,-1.3828,-0.9144,0,14
5.0902,-1.7279,-1.0128,5,15
5.1956,-1.7809,-0.90236,2,16
5.2702,-1.8065,-0.78299,2,17
4.0651,-1.3934,-1.4521,0,9
50.899,-17.446,2.5092,41,25
21.974,-7.532,1.6243,3,26
17.195,-5.8939,1.6958,2,27
18.357,-6.2923,2.2694,1,28
22.299,-7.6433,3.3129,3,29
4.0917,-1.4025,-0.91939,0,14
19.588,-6.714,3.4019,1,30
5.0813,-1.7417,-1.012,5,15
5.1235,-1.7722,-0.89069,2,16
5.239,-1.8121,-0.77909,2,17
19.62,-6.7863,0.482,2,24
4.0451,-1.3992,-1.4463,0,9
19.779,-6.8415,0.97602,3,25
19.888,-6.8792,1.4716,2,26
19.975,-6.9091,2.4717,2,28
18.045,-6.2417,2.6835,1,29
4.0767,-1.4101,-0.91689,1,14
19.604,-6.7809,3.4081,1,30
5.0801,-1.7572,-1.0128,4,15
5.0996,-1.7809,-0.88745,2,16
5.2111,-1.8198,-0.77575,2,17
5.2136,-1.8207,-0.6458,0,18
51.653,-18.038,0,37,23
4.0624,-1.4187,-1.454,0,9
19.81,-6.918,0.97853,3,25
19.011,-6.6389,1.4081,2,26
17.074,-5.9626,1.6873,1,27
19.73,-6.8901,2.9371,2,29
4.0928,-1.4293,-0.92146,1,14
5.0786,-1.7735,-1.0135,3,15
5.0738,-1.7888,-0.88388,2,16
5.1665,-1.8214,-0.76991,2,17
5.2082,-1.8361,-0.6458,0,18
19.37,-6.8288,0.47684,2,24
4.0528,-1.4288,-1.4521,0,9
19.614,-6.9149,0.96987,3,25
18.993,-6.696,1.4082,4,26
23.506,-8.2869,2.3253,7,27
19.779,-6.973,2.9474,2,29
4.083,-1.4394,-0.92022,1,14
19.728,-6.9549,3.4366,1,30
5.0937,-1.7958,-1.0176,4,15
18.056,-6.3656,3.6071,2,31
5.084,-1.8073,-0.88648,3,16
5.1729,-1.8389,-0.77158,3,17
5.2258,-1.8577,-0.64859,0,18
19.263,-6.8479,0,1,23
19.501,-6.9324,0.48051,2,24
4.0687,-1.4464,-1.4591,0,9
18.237,-6.4831,0.9026,2,25
17.579,-6.2491,1.3046,1,26
23.465,-8.3418,2.3234,3,27
19.809,-7.042,2.9546,4,29
4.07,-1.4469,-0.91814,1,14
19.471,-6.9219,3.3951,1,30
5.0908,-1.8098,-1.018,3,15
18.191,-6.4668,3.6375,4,31
5.0916,-1.8271,-0.88874,2,16
5.132,-1.8416,-0.76629,2,17
5.2278,-1.8759,-0.64951,1,18
4.1004,-1.4714,-1.5856,0,8
19.352,-6.9443,0.47735,2,24
4.0733,-1.4617,-1.4623,0,9
18.139,-6.5088,0.89869,2,25
18.863,-6.7689,1.4014,2,26
21.163,-7.5941,2.0977,2,27
17.823,-6.3956,2.6613,1,29
4.0712,-1.4609,-0.91939,1,14
19.23,-6.9003,3.3565,3,30
5.0965,-1.8288,-1.0202,3,15
17.299,-6.2074,3.4627,1,31
5.0877,-1.8437,-0.88907,3,16
5.1318,-1.8597,-0.76712,2,17
5.2405,-1.8991,-0.65184,1,18
4.1081,-1.4887,-1.5904,0,8
19.131,-6.9329,0.47243,2,24
4.074,-1.4764,-1.4642,0,9
18.141,-6.574,0.89981,5,25
17.613,-6.3829,1.31,1,26
21.931,-7.9477,2.7279,3,28
17.838,-6.4644,2.6666,2,29
4.0611,-1.4717,-0.91814,1,14
17.061,-6.1827,2.9814,3,30
5.076,-1.8395,-1.0172,3,15
5.0828,-1.857,-0.88907,2,16
5.1213,-1.8711,-0.76629,1,17
19.052,-6.9608,0,1,23
4.1431,-1.5137,-1.6054,0,8
20.912,-7.6403,0.5169,3,24
4.0684,-1.4864,-1.4636,0,9
18.11,-6.6166,0.89915,5,25
17.625,-6.4393,1.3121,1,26
23.16,-8.4615,2.3004,3,27
17.903,-6.541,2.6788,5,29
4.0572,-1.4823,-0.91814,2,14
17.69,-6.4631,3.0942,1,30
4.8385,-1.7678,-0.97057,3,15
17.896,-6.5383,3.5897,1,31
5.0995,-1.8803,-0.89296,2,16
5.125,-1.8897,-0.76768,1,17
19.153,-7.0623,0,1,23
4.1244,-1.5208,-1.6,0,8
48.656,-17.94,1.204,31,24
4.0853,-1.5063,-1.4713,0,9
18.044,-6.6531,0.89682,5,25
17.504,-6.4543,1.3046,3,26
18.484,-6.8154,1.838,1,27
17.874,-6.5905,2.2278,1,28
19.411,-7.1573,2.9076,5,29
4.0693,-1.5004,-0.92188,2,14
4.813,-1.7747,-0.96649,3,15
18.776,-6.9232,3.7704,2,31
5.1102,-1.9025,-0.89588,2,16
5.1395,-1.9134,-0.77074,1,17
4.1038,-1.5278,-1.5938,0,8
4.0734,-1.5165,-1.4687,1,9
18.081,-6.7313,0.89971,7,25
17.477,-6.5064,1.304,5,26
23.335,-8.6875,2.323,3,27
19.536,-7.2731,2.4378,2,28
17.881,-6.6572,2.6816,1,29
4.0664,-1.5139,-0.9223,1,14
16.77,-6.2432,2.9399,1,30
4.7982,-1.7863,-0.96464,3,15
18.765,-6.9863,3.7727,1,31
5.1711,-1.9427,-0.90755,0,16
5.6511,-2.123,-0.8484,0,17
4.1133,-1.5453,-1.5993,1,8
20.802,-7.815,0.51593,3,24
4.0636,-1.5266,-1.4668,1,9
18.068,-6.7878,0.90009,5,25
17.47,-6.5632,1.305,5,26
23.561,-8.8513,2.3481,4,27
19.295,-7.2486,2.4104,2,28
18.464,-6.9366,2.7721,1,29
4.0729,-1.5301,-0.92479,1,14
16.762,-6.2971,2.9418,3,30
4.7837,-1.7971,-0.96279,3,15
4.8156,-1.8226,-0.84594,0,16
5.7274,-2.1676,-0.86065,1,17
4.099,-1.5513,-1.5952,2,8
4.0829,-1.5452,-1.4751,1,9
18.033,-6.8248,0.89915,7,25
4.0944,-1.5496,-1.3661,0,10
17.415,-6.591,1.3021,5,26
20.284,-7.6767,2.0234,2,27
19.071,-7.2177,2.3846,1,28
20.014,-7.5747,3.0075,4,29
4.0801,-1.5442,-0.92729,1,14
16.793,-6.3555,2.9499,2,30
4.7701,-1.8053,-0.96094,3,15
4.808,-1.837,-0.84562,2,16
5.7168,-2.1842,-0.86009,1,17
4.1046,-1.5682,-1.5993,2,8
4.0798,-1.5587,-1.4757,2,9
18.071,-6.9042,0.90213,5,25
4.0895,-1.5624,-1.3661,0,10
17.415,-6.6535,1.3036,5,26
18.001,-6.8776,1.7978,2,27
18.36,-7.0146,2.2984,1,28
17.626,-6.7342,2.6518,4,29
4.0789,-1.5584,-0.92812,1,14
4.7625,-1.8196,-0.96057,3,15
4.7749,-1.8406,-0.84076,2,16
5.7214,-2.2054,-0.86176,1,17
19.544,-7.5337,0,2,23
4.1035,-1.5817,-1.6007,2,8
18.074,-6.9671,0.44973,2,24
4.0734,-1.5702,-1.4751,2,9
18.181,-7.0081,0.90866,2,25
4.1134,-1.5856,-1.3756,0,10
16.607,-6.4016,1.2446,1,26
17.288,-6.6638,1.7285,3,27
19.214,-7.4062,2.408,2,28
16.14,-6.2216,2.4311,1,29
4.0815,-1.5733,-0.92978,2,14
16.744,-6.4544,2.9483,2,30
4.7443,-1.8288,-0.95798,3,15
15.612,-6.0179,3.1524,2,31
4.7698,-1.8539,-0.84076,2,16
5.7244,-2.225,-0.86315,1,17
4.3024,-1.6722,-0.43065,0,19
19.391,-7.5368,0,2,23
4.113,-1.5986,-1.6061,2,8
18.005,-6.998,0.44848,2,24
4.0849,-1.5877,-1.4809,3,9
18.236,-7.0878,0.91238,2,25
4.0804,-1.586,-1.3661,0,10
16.537,-6.4277,1.2407,3,26
17.531,-6.8138,1.7547,3,27
19.43,-7.552,2.4378,6,28
18.598,-7.2288,2.8043,1,29
4.0917,-1.5904,-0.93311,1,14
16.031,-6.2309,2.8258,3,30
4.7135,-1.832,-0.95279,2,15
19.252,-7.4827,3.8915,1,31
4.7511,-1.8638,-0.83849,2,16
5.7303,-2.248,-0.8651,1,17
4.2767,-1.6778,-0.4286,0,19
5.0503,-1.9812,-2.1184,0,7
19.192,-7.529,0,2,23
4.1237,-1.6177,-1.6123,3,8
21.151,-8.2973,0.52749,3,24
4.0852,-1.6026,-1.4828,3,9
20.856,-8.1819,1.0448,8,25
16.528,-6.484,1.2415,1,26
19.882,-7.7997,1.9925,6,27
19.328,-7.5825,2.428,4,28
4.0794,-1.6004,-0.93144,1,14
16.022,-6.2856,2.8277,1,30
4.6803,-1.8361,-0.94724,2,15
18.105,-7.1024,3.6642,1,31
4.7333,-1.8712,-0.83622,2,16
5.765,-2.279,-0.87122,0,17
4.6646,-1.844,-0.58656,2,18
4.2927,-1.697,-0.43065,0,19
5.0521,-1.9972,-2.1213,0,7
4.1177,-1.6278,-1.6116,3,8
21.125,-8.3512,0.5274,3,24
4.0968,-1.6196,-1.4885,3,9
18.299,-7.2339,0.9176,2,25
16.658,-6.5852,1.2525,1,26
16.769,-6.6291,1.6823,3,27
19.299,-7.6294,2.4269,6,28
16.031,-6.3376,2.4227,1,29
4.0861,-1.6153,-0.93394,1,14
17.006,-6.7229,3.0044,3,30
4.6681,-1.8454,-0.94576,3,15
18.154,-7.1765,3.6779,1,31
4.7021,-1.875,-0.83168,2,16
5.7508,-2.2932,-0.87011,0,17
4.6517,-1.8549,-0.58563,2,18
4.2932,-1.7119,-0.4312,0,19
5.0132,-1.9991,-2.1075,0,7
4.1024,-1.6359,-1.6075,3,8
17.675,-7.0482,0.44179,1,24
4.0797,-1.6268,-1.4841,2,9
19.424,-7.7453,1.4622,5,26
16.805,-6.701,1.6878,2,27
19.326,-7.7065,2.4331,4,28
16.064,-6.4056,2.4305,1,29
4.0886,-1.6304,-0.9356,1,14
17.723,-7.0672,3.1348,1,30
4.648,-1.8534,-0.94279,3,15
16.809,-6.7025,3.4094,3,31
4.6965,-1.8889,-0.83168,2,16
4.6351,-1.8642,-0.58424,3,18
4.2955,-1.7276,-0.43195,0,19
5.0246,-2.0209,-2.1148,0,7
4.1255,-1.6593,-1.6184,2,8
16.029,-6.447,0.40113,3,24
4.0801,-1.641,-1.486,2,9
17.686,-7.1135,0.889,2,25
17.198,-6.917,1.2962,1,26
16.803,-6.7582,1.6897,2,27
19.276,-7.7527,2.4296,4,28
16.115,-6.4814,2.4411,1,29
4.0964,-1.6476,-0.93851,1,14
18.597,-7.4799,3.2933,1,30
4.6298,-1.8621,-0.9402,3,15
16.748,-6.7362,3.4012,1,31
4.6455,-1.8835,-0.82357,1,16
4.6041,-1.8667,-0.58099,3,18
4.2796,-1.7351,-0.43083,0,19
5.0172,-2.0342,-2.1141,0,7
4.1278,-1.6736,-1.6212,2,8
16.047,-6.506,0.40201,1,24
4.079,-1.6538,-1.4873,2,9
16.877,-6.8428,1.2735,1,26
15.991,-6.4834,1.6098,2,27
19.223,-7.7938,2.4257,4,28
16.08,-6.5196,2.4386,3,29
4.0955,-1.6605,-0.93935,1,14
15.855,-6.4284,2.8108,2,30
4.5608,-1.8492,-0.92724,1,15
15.16,-6.1464,3.082,3,31
4.6253,-1.8913,-0.82098,2,16
4.582,-1.8736,-0.5789,3,18
4.3094,-1.7622,-0.43436,0,19
4.9835,-2.0378,-2.1024,1,7
4.1263,-1.6873,-1.6225,1,8
16.112,-6.5884,0.40415,1,24
4.0899,-1.6724,-1.493,2,9
16.554,-6.769,1.2506,3,26
16.781,-6.8617,1.6914,2,27
19.231,-7.8636,2.4296,2,28
21.234,-8.6827,3.2241,2,29
4.0923,-1.6734,-0.93976,1,14
15.854,-6.4829,2.8141,3,30
4.5116,-1.8448,-0.91835,0,15
15.241,-6.2323,3.1024,4,31
4.5941,-1.8945,-0.81644,2,16
4.5397,-1.8721,-0.57425,2,18
4.306,-1.7757,-0.43455,0,19
4.9826,-2.0547,-2.1046,1,7
4.1438,-1.7088,-1.6314,0,8
17.756,-7.3223,0.44593,5,24
4.0849,-1.6845,-1.493,2,9
16.595,-6.8432,1.2552,1,26
19.582,-8.0753,1.9762,8,27
19.161,-7.9017,2.4238,2,28
21.157,-8.7245,3.2163,8,29
4.0946,-1.6885,-0.94142,1,14
15.849,-6.5359,2.8167,3,30
4.5025,-1.8567,-0.91761,2,15
4.5797,-1.9035,-0.81482,2,16
4.5069,-1.8733,-0.57076,2,18
4.2882,-1.7824,-0.43325,0,19
4.9889,-2.0736,-2.1097,0,7
4.1425,-1.7218,-1.6328,0,8
16.096,-6.6903,0.4047,1,24
4.0854,-1.6981,-1.4949,2,9
17.952,-7.4615,1.3594,8,26
16.717,-6.9483,1.689,2,27
19.134,-7.9529,2.4231,2,28
20.571,-8.5502,3.1308,2,29
4.1151,-1.7104,-0.94725,1,14
15.908,-6.6119,2.8303,2,30
4.5009,-1.8708,-0.91835,3,15
15.407,-6.4037,3.1435,7,31
4.5358,-1.9011,-0.80801,2,16
4.494,-1.8836,-0.56984,4,18
4.2847,-1.7958,-0.43343,1,19
4.6636,-1.9546,-2.1121,0,6
0.4647,-0.19477,-0.011698,1,22
4.9862,-2.0899,-2.1111,1,7
4.1478,-1.7385,-1.6369,0,8
15.923,-6.6739,0.40085,1,24
4.0926,-1.7153,-1.4994,2,9
18.402,-7.713,1.8616,1,27
19.935,-8.3552,2.5277,7,28
16.521,-6.9246,2.5176,2,29
4.1118,-1.7234,-0.94766,1,14
4.4392,-1.8606,-0.90688,3,15
15.308,-6.4159,3.1272,2,31
4.5062,-1.9053,-0.80379,2,16
4.5239,-1.9129,-0.6903,0,17
4.4808,-1.8946,-0.56891,4,18
4.2827,-1.8108,-0.43381,1,19
4.6472,-1.965,-2.1075,0,6
4.9727,-2.1026,-2.1082,2,7
4.1302,-1.7464,-1.6321,2,8
18.121,-7.6622,0.45679,2,24
4.1029,-1.7348,-1.5052,2,9
19.001,-8.0341,0.96204,3,25
19.556,-8.2688,1.4847,8,26
17.377,-7.3473,1.7601,3,27
19.919,-8.4224,2.5291,7,28
20.947,-8.857,3.1962,2,29
4.1118,-1.7386,-0.94891,1,14
4.388,-1.8554,-0.89762,3,15
14.451,-6.1104,2.9561,1,31
4.4921,-1.9133,-0.80217,2,16
4.5007,-1.9169,-0.68752,0,17
4.4904,-1.9125,-0.57076,3,18
4.3109,-1.8361,-0.43715,1,19
4.6624,-1.9858,-2.1167,0,6
4.9706,-2.1171,-2.1097,1,7
4.1515,-1.7682,-1.6424,3,8
4.0914,-1.7426,-1.5026,2,9
17.588,-7.4912,0.89151,2,25
16.493,-7.0245,1.2535,1,26
19.461,-8.2886,1.9734,4,27
19.89,-8.4714,2.5281,7,28
15.428,-6.5711,2.3568,1,29
4.1144,-1.7524,-0.95057,1,14
20.901,-8.902,3.7323,2,30
4.3597,-1.8569,-0.8928,3,15
14.426,-6.1443,2.9543,1,31
4.461,-1.9157,-0.79763,2,16
4.4586,-1.9146,-0.68195,3,17
4.4592,-1.9149,-0.56751,1,18
4.267,-1.8324,-0.43325,1,19
4.6395,-1.9923,-2.109,1,6
4.9489,-2.1252,-2.1031,1,7
4.1376,-1.7768,-1.639,3,8
18.11,-7.7767,0.45758,2,24
4.1018,-1.7614,-1.5084,2,9
17.641,-7.5757,0.89533,2,25
16.552,-7.108,1.2597,1,26
20.598,-8.8452,2.0914,7,27
19.89,-8.5413,2.5314,7,28
15.434,-6.6278,2.3607,2,29
4.1002,-1.7608,-0.94849,0,14
4.3523,-1.869,-0.89243,3,15
14.364,-6.1685,2.9454,2,31
4.4299,-1.9179,-0.79309,2,16
4.4438,-1.9239,-0.68056,2,17
4.2693,-1.8484,-0.54405,0,18
4.3,-1.8616,-0.43715,4,19
4.6133,-1.9973,-2.0998,1,6
4.946,-2.1414,-2.1046,2,7
4.153,-1.798,-1.6472,4,8
18.209,-7.8836,0.46069,2,24
4.0914,-1.7713,-1.5065,1,9
18.922,-8.1923,0.96158,3,25
4.07,-1.7621,-1.3839,0,10
16.368,-7.0866,1.2472,1,26
20.959,-9.074,2.1308,2,27
19.883,-8.6082,2.5337,7,28
15.303,-6.6256,2.3437,2,29
4.1165,-1.7822,-0.95348,0,14
21.55,-9.3301,3.8581,2,30
4.3017,-1.8624,-0.88318,2,15
14.31,-6.1955,2.938,1,31
4.358,-1.9003,-0.7811,0,16
4.2645,-1.8596,-0.65384,0,17
4.2372,-1.8477,-0.54057,1,18
4.2987,-1.8745,-0.43752,1,19
4.603,-2.0072,-2.0975,1,6
4.9404,-2.1543,-2.1046,2,7
4.1483,-1.8089,-1.6472,3,8
4.1024,-1.7889,-1.5122,2,9
18.904,-8.2434,0.96176,3,25
16.328,-7.1198,1.2456,4,26
17.534,-7.646,1.7846,3,27
19.853,-8.6571,2.5328,7,28
18.922,-8.2512,2.9012,1,29
4.1262,-1.7993,-0.95681,0,14
4.1851,-1.8249,-0.86022,0,15
14.308,-6.2392,2.941,0,31
4.2385,-1.8632,-0.76067,0,16
4.1973,-1.8451,-0.64437,2,17
4.2317,-1.8602,-0.54057,2,18
4.3077,-1.8936,-0.43901,1,19
4.5953,-2.0201,-2.0967,1,6
4.9442,-2.1734,-2.109,2,7
4.1533,-1.8257,-1.6513,3,8
4.097,-1.801,-1.5122,2,9
18.545,-8.1524,0.94471,3,25
4.151,-1.8248,-1.4149,0,10
16.453,-7.2325,1.2567,1,26
17.052,-7.4961,1.7378,1,27
19.845,-8.7239,2.5351,7,28
18.869,-8.2946,2.8967,1,29
4.1137,-1.8084,-0.95515,0,14
15.369,-6.7563,2.7583,2,30
4.1653,-1.831,-0.85725,0,15
14.446,-6.3504,2.9732,1,31
4.1713,-1.8493,-0.74965,2,16
4.2313,-1.8759,-0.6505,3,17
4.2476,-1.8832,-0.54335,2,18
4.3054,-1.9088,-0.43938,0,19
4.5957,-2.0375,-2.0998,1,6
4.9135,-2.1784,-2.0988,2,7
4.1475,-1.8388,-1.6513,3,8
18.24,-8.0868,0.46324,2,24
4.1104,-1.8223,-1.5193,2,9
18.905,-8.3814,0.96437,3,25
16.218,-7.1903,1.2405,1,26
20.733,-9.192,2.1159,2,27
17.221,-7.6349,2.2029,4,28
17.771,-7.8786,2.732,4,29
4.1062,-1.8205,-0.95473,0,14
20.683,-9.1698,3.7171,4,30
4.1828,-1.8545,-0.86207,0,15
14.441,-6.4022,2.9761,3,31
4.1715,-1.8634,-0.75062,2,16
4.2098,-1.8805,-0.64799,2,17
4.2387,-1.8934,-0.54289,1,18
4.3091,-1.9249,-0.44031,0,19
4.59,-2.0503,-2.0998,1,6
4.9176,-2.1967,-2.1031,2,7
4.1664,-1.8611,-1.6608,3,8
15.972,-7.1347,0.40614,4,24
4.1122,-1.8369,-1.5218,2,9
19.865,-8.8734,1.0146,4,25
16.44,-7.3438,1.2591,1,26
17.998,-8.0398,1.8391,2,27
16.576,-7.4043,2.123,1,28
16.156,-7.2166,2.4867,2,29
4.119,-1.8399,-0.95889,0,14
20.647,-9.2227,3.7152,9,30
4.1759,-1.8653,-0.8617,2,15
14.464,-6.4609,2.9847,3,31
4.2037,-1.8928,-0.75743,0,16
4.206,-1.8938,-0.64827,2,17
4.2367,-1.9076,-0.54335,1,18
4.3143,-1.9425,-0.44142,1,19
0.42816,-0.19278,-0.20906,0,5
4.5704,-2.0579,-2.0936,1,6
4.9094,-2.2105,-2.1024,2,7
4.1677,-1.8765,-1.6636,3,8
15.931,-7.173,0.40563,4,24
4.1085,-1.8499,-1.5225,2,9
19.778,-8.9052,1.0115,4,25
4.1416,-1.8648,-1.4173,0,10
16.16,-7.2764,1.6535,1,27
16.686,-7.513,2.14,1,28
4.1278,-1.8585,-0.96222,0,14
15.411,-6.939,2.7768,3,30
4.1613,-1.8737,-0.85985,1,15
14.396,-6.482,2.9747,1,31
4.1927,-1.9028,-0.75645,0,16
4.1985,-1.9054,-0.64799,2,17
4.2419,-1.9251,-0.54475,1,18
4.3031,-1.9529,-0.44087,1,19
4.5676,-2.0729,-2.0952,2,6
4.9147,-2.2304,-2.1075,3,7
4.198,-1.9052,-1.678,3,8
19.049,-8.6448,0.48566,2,24
4.115,-1.8675,-1.527,1,9
17.614,-7.9937,0.90204,2,25
4.1238,-1.8715,-1.4131,0,10
19.808,-8.9897,1.5211,3,26
19.33,-8.7727,1.9805,2,27
16.611,-7.5386,2.1332,2,28
18.538,-8.4132,2.8611,3,29
4.1115,-1.8659,-0.95972,0,14
17.619,-7.9961,3.1789,5,30
4.1916,-1.9023,-0.86725,0,15
14.347,-6.5109,2.9684,1,31
4.2014,-1.9218,-0.75905,0,16
4.2127,-1.9269,-0.65105,2,17
4.2397,-1.9393,-0.54521,1,18
4.2792,-1.9573,-0.43901,1,19
4.5564,-2.0842,-2.0928,1,6
4.8725,-2.2287,-2.0922,1,7
4.218,-1.9294,-1.6882,3,8
15.13,-6.9206,0.38627,1,24
4.1233,-1.886,-1.5321,0,9
19.703,-9.0125,1.0104,11,25
4.1339,-1.8909,-1.4185,0,10
19.762,-9.0393,1.5196,3,26
19.508,-8.9232,2.5086,7,28
17.148,-7.8437,2.6501,5,29
4.1273,-1.8879,-0.96471,0,14
16.152,-7.3883,2.9182,2,30
4.1895,-1.9163,-0.86799,0,15
14.424,-6.5976,2.9884,4,31
4.1981,-1.9336,-0.75937,0,16
4.2022,-1.9355,-0.65022,1,17
4.2401,-1.9529,-0.54591,1,18
4.3265,-1.9927,-0.4444,0,19
0.4182,-0.19262,-0.205,2,5
4.5409,-2.0915,-2.0882,1,6
4.8734,-2.2446,-2.0951,2,7
4.2471,-1.9561,-1.7019,4,8
15.66,-7.2128,0.40029,1,24
4.1286,-1.9016,-1.5359,1,9
17.487,-8.0544,0.89785,5,25
4.1272,-1.9009,-1.4179,0,10
19.359,-8.9165,1.4904,5,26
19.582,-9.0191,2.5212,5,28
15.706,-7.234,2.4302,2,29
4.1366,-1.9052,-0.96804,0,14
20.79,-9.5755,3.7605,4,30
4.1916,-1.9306,-0.86947,0,15
4.1831,-1.9426,-0.75775,0,16
4.2105,-1.9553,-0.65244,1,17
4.2375,-1.9679,-0.54637,2,18
4.3274,-2.0096,-0.44514,0,19
0.43085,-0.20009,-0.2115,2,5
4.5427,-2.1096,-2.0921,1,6
4.8747,-2.2638,-2.0988,2,7
4.2597,-1.9782,-1.7094,5,8
19.194,-8.9134,0.49133,8,24
4.1278,-1.9169,-1.5378,0,9
17.585,-8.1665,0.90418,5,25
4.1316,-1.9187,-1.4215,0,10
16.528,-7.6756,1.2743,3,26
15.251,-7.0824,1.5688,1,27
16.195,-7.521,2.0882,2,28
4.1341,-1.9199,-0.96887,0,14
4.1855,-1.9437,-0.86947,0,15
15.972,-7.4173,3.3179,8,31
4.1852,-1.9569,-0.75905,0,16
4.2251,-1.9756,-0.65551,3,17
4.2431,-1.984,-0.54777,1,18
4.3077,-2.0142,-0.44365,0,19
0.44026,-0.20586,-0.21638,2,5
4.5338,-2.1199,-2.0905,1,6
4.8772,-2.2805,-2.1024,3,7
4.2647,-1.9941,-1.7135,7,8
15.881,-7.4257,0.40702,4,24
4.1262,-1.9293,-1.5391,1,9
19.717,-9.2195,1.0151,4,25
4.1387,-1.9352,-1.4256,0,10
19.378,-9.0608,1.4959,2,26
15.988,-7.4757,1.6466,1,27
20.046,-9.3732,2.5878,5,28
16.328,-7.6347,2.5332,5,29
4.1468,-1.939,-0.97303,0,14
16.183,-7.5668,2.935,13,30
4.1893,-1.9588,-0.87133,0,15
4.1986,-1.9793,-0.76261,6,16
4.2242,-1.9914,-0.65634,2,17
4.2423,-1.9999,-0.54846,1,18
4.3176,-2.0354,-0.44532,1,19
0.44787,-0.21113,-0.22045,3,5
4.5037,-2.1231,-2.0797,1,6
4.8633,-2.2927,-2.0995,3,7
4.2482,-2.0027,-1.7094,2,8
15.546,-7.3289,0.39904,6,24
4.1458,-1.9544,-1.5487,1,9
17.54,-8.2685,0.90428,5,25
4.1429,-1.953,-1.4292,0,10
17.312,-8.1612,1.3383,5,26
15.927,-7.508,1.6427,1,27
17.192,-8.1046,2.2227,1,28
19.228,-9.0643,2.9875,2,29
4.1318,-1.9478,-0.97095,0,14
16.225,-7.6488,2.947,8,30
4.1831,-1.972,-0.87133,0,15
14.871,-7.0105,3.0976,3,31
4.2058,-1.998,-0.65439,1,17
4.2561,-2.0218,-0.55102,1,18
4.3421,-2.0627,-0.44848,0,19
0.45219,-0.21481,-0.22289,3,5
4.5374,-2.1555,-2.0982,1,6
4.8498,-2.3039,-2.0966,3,7
4.2609,-2.0241,-1.7169,2,8
16.549,-7.8614,0.42536,3,24
4.1486,-1.9708,-1.5519,0,9
17.528,-8.3265,0.90493,7,25
4.1544,-1.9735,-1.4352,0,10
15.093,-7.1698,1.1684,1,26
17.012,-8.0816,1.7571,1,27
14.711,-6.9886,1.9046,3,28
17.517,-8.3216,2.7256,9,29
4.149,-1.971,-0.97635,0,14
16.208,-7.6994,2.948,8,30
4.1826,-1.9869,-0.87244,0,15
14.635,-6.9526,3.0528,4,31
4.2038,-2.0114,-0.65495,1,17
4.2612,-2.0389,-0.55241,1,18
5.5183,-2.6404,-0.57073,0,19
0.45983,-0.22002,-0.22696,3,5
5.7723,-2.7619,-0.29841,0,21
0.46113,-0.22064,-0.21352,1,6
4.8483,-2.3198,-2.0988,3,7
4.2993,-2.0571,-1.7347,0,8
15.711,-7.5175,0.40438,3,24
4.1516,-1.9864,-1.5551,0,9
17.535,-8.3901,0.90651,10,25
4.1643,-1.9925,-1.4405,0,10
18.723,-8.9583,1.4514,7,26
15.508,-7.42,1.6039,2,27
14.703,-7.0348,1.906,3,28
17.508,-8.3773,2.7278,5,29
4.1347,-1.9783,-0.97427,0,14
16.368,-7.8315,2.9811,8,30
4.177,-1.9986,-0.87244,0,15
17.391,-8.321,3.6323,1,31
4.2011,-2.0246,-0.76618,0,16
4.2124,-2.03,-0.65718,1,17
5.5001,-2.6506,-0.56961,2,19
0.45428,-0.21892,-0.22452,3,5
5.7574,-2.7746,-0.29804,0,21
0.46716,-0.22513,-0.21661,1,6
4.8301,-2.3277,-2.0937,3,7
5.2467,-2.5285,-2.1198,6,8
15.408,-7.4251,0.39709,4,24
4.1563,-2.003,-1.559,0,9
4.1519,-2.0008,-1.4381,0,10
18.627,-8.9767,1.4459,7,26
17.9,-8.6261,1.8538,2,27
14.69,-7.0793,1.907,3,28
14.732,-7.0995,2.2983,1,29
4.1027,-1.9771,-0.96804,1,14
16.355,-7.8815,2.9827,5,30
4.1856,-2.0171,-0.8754,0,15
15.698,-7.5649,3.2831,1,31
4.1951,-2.037,-0.76618,0,16
4.2117,-2.0451,-0.65801,2,17
5.5109,-2.676,-0.71642,5,18
5.469,-2.6556,-0.5672,2,19
0.45363,-0.22027,-0.22452,4,5
5.7509,-2.7925,-0.29813,0,21
0.44159,-0.21442,-0.20505,1,6
4.8282,-2.3444,-2.0959,3,7
5.2443,-2.5465,-2.1219,5,8
4.1435,-2.012,-1.5564,0,9
16.543,-8.0328,0.8576,2,25
4.1545,-2.0173,-1.4411,1,10
18.572,-9.018,1.4437,7,26
21.05,-10.221,2.1831,3,27
14.195,-6.8929,1.8454,1,28
16.916,-8.2141,2.6429,4,29
4.1303,-2.0055,-0.97594,0,14
19.731,-9.5808,3.6036,6,30
4.1831,-2.0312,-0.87614,0,15
14.618,-7.0981,3.0617,1,31
4.2138,-2.0616,-0.77072,0,16
5.4332,-2.6582,-0.85007,1,17
5.4887,-2.6853,-0.71456,5,18
5.4414,-2.6622,-0.56515,2,19
0.45789,-0.22402,-0.22696,5,5
0.44924,-0.21979,-0.2089,1,6
4.8129,-2.3547,-2.0922,3,7
5.2333,-2.5604,-2.1205,4,8
4.1511,-2.0309,-1.5615,0,9
16.345,-7.9967,0.84856,7,25
4.1519,-2.0313,-1.4423,0,10
19.773,-9.6737,1.5392,3,26
16.421,-8.0338,1.7055,1,27
14.146,-6.9211,1.8417,0,28
14.83,-7.2555,2.3203,1,29
4.1629,-2.0367,-0.98509,0,14
16.355,-8.0018,2.9914,3,30
4.1877,-2.0488,-0.87836,0,15
4.2059,-2.0732,-0.7704,0,16
5.4235,-2.6734,-0.84979,2,17
5.4664,-2.6946,-0.7127,5,18
5.4031,-2.6633,-0.562,2,19
0.45887,-0.22619,-0.22777,5,5
0.45355,-0.22357,-0.21121,1,6
4.7925,-2.3624,-2.0864,3,7
5.2257,-2.5759,-2.1205,4,8
14.453,-7.1244,0.37411,1,24
4.1655,-2.0533,-1.5692,0,9
16.339,-8.054,0.8495,4,25
4.1459,-2.0436,-1.4423,1,10
18.55,-9.144,1.4462,2,26
20.957,-10.33,2.1798,3,27
17.36,-8.5571,2.2633,3,28
16.162,-7.9667,2.5324,3,29
4.1148,-2.0283,-0.97511,0,14
4.1657,-2.0534,-0.87503,1,15
5.3222,-2.6431,-0.97629,3,16
5.3818,-2.6727,-0.8445,2,17
5.4335,-2.6984,-0.70945,4,18
5.3631,-2.6634,-0.55865,2,19
0.45165,-0.2243,-0.22452,5,5
0.45123,-0.22409,-0.21044,2,6
4.7905,-2.379,-2.0886,3,7
5.2029,-2.5839,-2.1144,4,8
14.419,-7.161,0.37379,1,24
4.1577,-2.0648,-1.5686,2,9
16.467,-8.1779,0.85741,4,25
4.1501,-2.061,-1.4459,1,10
17.331,-8.607,1.3531,6,26
18.311,-9.0939,1.9074,3,27
17.267,-8.575,2.2545,4,28
16.151,-8.0208,2.5343,1,29
4.149,-2.0605,-0.98467,0,14
16.354,-8.1215,2.9999,3,30
4.1596,-2.0657,-0.87503,1,15
5.2676,-2.6332,-0.96754,0,16
5.35,-2.6744,-0.84061,2,17
5.3891,-2.694,-0.70457,2,18
5.3614,-2.6801,-0.55921,3,19
0.46086,-0.23038,-0.2294,6,5
0.4589,-0.2294,-0.2143,2,6
4.7825,-2.3907,-2.0879,3,7
5.1944,-2.5966,-2.1137,4,8
4.1455,-2.0723,-1.566,0,9
16.113,-8.0549,0.84009,2,25
4.1532,-2.0761,-1.4489,1,10
19.429,-9.7122,1.5189,9,26
18.261,-9.1284,1.9047,6,27
14.694,-7.3456,1.9211,2,28
16.186,-8.0914,2.5432,1,29
19.854,-9.9248,3.6467,4,30
4.1577,-2.0784,-0.87577,1,15
16.738,-8.3671,3.5257,4,31
5.187,-2.6133,-0.95424,1,16
5.3097,-2.6752,-0.8356,2,17
5.3966,-2.7189,-0.70666,0,18
5.3458,-2.6934,-0.55847,4,19
0.41329,-0.20822,-0.21905,0,4
0.4634,-0.23347,-0.23103,6,5
0.45488,-0.22918,-0.21275,2,6
4.7634,-2.3999,-2.0828,3,7
5.1745,-2.607,-2.1089,4,8
16.306,-8.2155,0.42392,7,24
4.1694,-2.1006,-1.5775,0,9
16.067,-8.0947,0.83897,4,25
4.1552,-2.0935,-1.4518,1,10
19.382,-9.7651,1.5176,9,26
18.209,-9.1741,1.9022,3,27
15.176,-7.6459,2.3882,1,29
17.581,-8.8576,3.2343,1,30
4.1476,-2.0897,-0.87503,1,15
16.705,-8.4161,3.5242,4,31
5.185,-2.6305,-0.95521,3,16
5.2669,-2.6721,-0.83003,3,17
5.3465,-2.7124,-0.70109,1,18
5.3383,-2.7083,-0.55847,3,19
0.45786,-0.23229,-0.22859,6,5
0.45753,-0.23212,-0.2143,3,6
4.765,-2.4174,-2.0864,4,7
5.1488,-2.6121,-2.1014,4,8
4.1703,-2.1157,-1.5801,0,9
17.505,-8.8807,0.91536,2,25
4.1663,-2.1137,-1.4578,1,10
14.953,-7.586,1.1725,3,26
14.603,-7.4086,1.5277,1,27
14.62,-7.4173,1.9172,4,28
17.943,-9.1031,2.8277,3,29
17.598,-8.9281,3.2421,6,30
4.1523,-2.1066,-0.87725,1,15
16.618,-8.4307,3.5109,4,31
5.142,-2.6279,-0.94873,1,16
5.2272,-2.6715,-0.82502,3,17
5.3295,-2.7237,-0.69992,3,18
5.3498,-2.7341,-0.56051,0,19
0.45717,-0.23364,-0.22859,6,5
0.46341,-0.23683,-0.21738,3,6
4.7528,-2.429,-2.0842,3,7
5.1343,-2.624,-2.0986,5,8
15.949,-8.151,0.41584,6,24
4.1724,-2.1324,-1.5833,0,9
17.45,-8.918,0.91387,5,25
4.1736,-2.133,-1.4626,1,10
15.579,-7.9617,1.2234,1,26
14.618,-7.4709,1.5316,1,27
17.958,-9.1779,2.8344,6,29
17.58,-8.9848,3.2437,6,30
4.1583,-2.1251,-0.87984,1,15
14.72,-7.523,3.1146,6,31
5.1008,-2.626,-0.94257,2,16
5.2052,-2.6797,-0.82279,3,17
5.3091,-2.7332,-0.6983,3,18
0.40342,-0.20768,-0.21477,1,4
0.46135,-0.23751,-0.23103,6,5
0.45779,-0.23567,-0.21507,3,6
4.7373,-2.4388,-2.0806,3,7
5.1115,-2.6314,-2.0925,3,8
15.896,-8.1836,0.4151,8,24
4.1779,-2.1508,-1.5878,0,9
16.031,-8.2529,0.84083,7,25
4.1639,-2.1436,-1.4614,1,10
16.889,-8.6946,1.3283,5,26
15.037,-7.7412,1.5779,1,27
14.952,-7.6973,2.3634,3,29
17.585,-9.0531,3.2495,6,30
4.1572,-2.1402,-0.88095,1,15
5.0724,-2.6293,-0.93868,1,16
5.1643,-2.6769,-0.8175,3,17
5.2397,-2.716,-0.69017,3,18
0.41086,-0.21297,-0.21905,1,4
0.46393,-0.24048,-0.23265,6,5
0.47515,-0.24629,-0.22355,3,6
4.7288,-2.4512,-2.0799,6,7
5.1058,-2.6466,-2.0932,4,8
15.632,-8.1029,0.40879,4,24
4.1819,-2.1677,-1.5916,0,9
4.1748,-2.164,-1.4673,1,10
16.937,-8.7794,1.334,3,26
15.093,-7.8235,1.586,5,27
14.418,-7.4733,1.8991,1,28
14.967,-7.7582,2.3693,6,29
18.597,-9.6399,3.4415,7,30
4.1704,-2.1617,-0.88503,1,15
18.594,-9.6382,3.946,3,31
5.0546,-2.638,-0.93673,2,16
5.1515,-2.6886,-0.81667,3,17
5.1528,-2.6893,-0.67971,3,18
0.45839,-0.23924,-0.23021,6,5
0.47119,-0.24591,-0.222,3,6
4.7219,-2.4644,-2.0799,3,7
5.0883,-2.6556,-2.0891,5,8
17.662,-9.2177,0.46254,2,24
4.1893,-2.1864,-1.5967,0,9
15.942,-8.3201,0.83859,9,25
4.1603,-2.1713,-1.4644,1,10
14.284,-7.455,1.1267,2,26
15.05,-7.8545,1.5838,2,27
14.437,-7.5347,1.9044,1,28
14.945,-7.8,2.3693,1,29
18.437,-9.6224,3.4169,7,30
4.1765,-2.1797,-0.88762,1,15
13.845,-7.2257,2.9424,0,31
5.0306,-2.6456,-0.93381,2,16
5.108,-2.6863,-0.8111,3,17
5.1268,-2.6962,-0.67739,3,18
0.45764,-0.24067,-0.23021,6,5
0.47041,-0.24739,-0.222,3,6
4.7142,-2.4792,-2.0799,3,7
5.0816,-2.6724,-2.0897,5,8
18.47,-9.7134,0.4845,7,24
4.1891,-2.2031,-1.5993,1,9
15.824,-8.3218,0.83375,4,25
4.1755,-2.1959,-1.4721,1,10
16.336,-8.591,1.2906,5,26
18.044,-9.4896,1.9021,7,27
16.312,-8.5786,2.1553,2,28
15.571,-8.1889,2.4725,1,29
18.325,-9.6371,3.4016,5,30
4.1888,-2.2029,-0.89169,0,15
13.737,-7.2244,2.9243,2,31
5.0018,-2.6494,-0.92992,2,16
5.0772,-2.6894,-0.80748,3,17
5.0977,-2.7002,-0.6746,3,18
0.465,-0.24631,-0.23428,6,5
0.47946,-0.25397,-0.22663,3,6
4.6903,-2.4844,-2.0726,3,7
5.067,-2.684,-2.087,4,8
18.443,-9.7691,0.48455,7,24
4.1876,-2.2181,-1.6012,1,9
19.369,-10.26,1.0221,4,25
4.1909,-2.2199,-1.4798,1,10
16.151,-8.5553,1.2781,1,26
17.956,-9.5114,1.8957,4,27
14.233,-7.5391,1.8835,2,28
16.066,-8.5099,2.9869,1,30
4.1718,-2.2098,-0.88947,1,15
14.65,-7.76,3.1235,4,31
4.9896,-2.6597,-0.92895,2,16
5.0579,-2.6962,-0.80553,3,17
5.0818,-2.7089,-0.67344,3,18
0.46274,-0.24666,-0.23347,6,5
0.46902,-0.25001,-0.222,3,6
4.6953,-2.5029,-2.0777,3,7
5.0451,-2.6893,-2.0809,5,8
4.1834,-2.23,-1.6019,2,9
15.662,-8.3489,0.82769,2,25
4.1715,-2.2237,-1.4751,1,10
17.162,-9.1485,1.36,6,26
14.44,-7.6971,1.5266,3,27
17.41,-9.2807,2.3072,4,28
15.584,-8.3068,2.9013,2,30
4.1782,-2.2272,-0.89206,1,15
4.9882,-2.6791,-0.93025,3,16
5.0337,-2.7036,-0.80303,3,17
5.0471,-2.7107,-0.66996,3,18
4.4029,-2.3648,-0.34948,0,20
0.45874,-0.24639,-0.23184,6,5
0.46661,-0.25061,-0.22123,3,6
4.6727,-2.5097,-2.0711,3,7
5.025,-2.6989,-2.0761,3,8
15.621,-8.3898,0.41167,3,24
4.1864,-2.2485,-1.6057,3,9
16.134,-8.6656,0.85406,4,25
4.178,-2.244,-1.4798,1,10
14.887,-7.9959,1.1817,1,26
15.047,-8.0816,1.5935,4,27
14.943,-8.026,1.9836,1,28
14.758,-7.9262,2.3543,2,29
18.807,-10.101,3.5073,5,30
4.1954,-2.2533,-0.89725,0,15
13.249,-7.1161,2.8336,1,31
4.9338,-2.6677,-0.92149,3,16
5.0018,-2.7045,-0.79913,3,17
5.0203,-2.7144,-0.6674,3,18
0.45966,-0.24854,-0.23265,6,5
0.47565,-0.25718,-0.22586,4,6
4.6623,-2.5209,-2.0697,3,7
5.0191,-2.7138,-2.0767,4,8
17.571,-9.5004,0.46375,6,24
4.1851,-2.2629,-1.6076,2,9
16.077,-8.6926,0.85229,7,25
4.1684,-2.2538,-1.4787,1,10
14.897,-8.0545,1.1842,6,26
17.074,-9.2317,1.8108,1,27
14.554,-7.8694,2.3253,3,29
4.1735,-2.2566,-0.89391,1,15
18.141,-9.8089,3.8856,4,31
4.9276,-2.6833,-0.92182,3,16
4.9903,-2.7174,-0.79858,3,17
4.9982,-2.7217,-0.66554,5,18
4.4155,-2.4044,-0.35157,0,20
0.46052,-0.25077,-0.23347,6,5
0.47326,-0.25771,-0.22509,4,6
4.6516,-2.533,-2.0682,3,7
5.0061,-2.726,-2.0747,3,8
4.1751,-2.2735,-1.6063,1,9
20.204,-11.002,1.0728,9,25
4.1734,-2.2726,-1.4828,1,10
15.029,-8.1836,1.1966,3,26
14.316,-7.7958,1.5208,3,27
14.283,-7.7776,1.9019,2,28
14.541,-7.9182,2.327,2,29
18.194,-9.9072,3.4036,7,30
4.1892,-2.2812,-0.89873,1,15
15.53,-8.4565,3.3316,1,31
4.9205,-2.6961,-0.92182,3,16
4.9658,-2.7209,-0.79579,4,17
4.9858,-2.7319,-0.66485,8,18
5.9516,-3.2611,-0.63315,0,19
4.4512,-2.439,-0.35492,0,20
0.46147,-0.25286,-0.23428,6,5
0.47906,-0.2625,-0.22817,5,6
4.6351,-2.5398,-2.0639,2,7
4.994,-2.7364,-2.0726,4,8
15.794,-8.6539,0.41812,8,24
4.1907,-2.2962,-1.6147,1,9
17.312,-9.4859,0.92058,2,25
4.1808,-2.2908,-1.4876,1,10
14.126,-7.7404,1.5028,2,27
17.466,-9.5704,2.3291,3,28
15.434,-8.4569,2.4734,4,29
15.227,-8.3435,2.8527,4,30
4.197,-2.2997,-0.90169,1,15
17.648,-9.6701,3.7915,5,31
4.8948,-2.7021,-0.91857,3,16
4.9929,-2.7562,-0.66694,7,18
4.4627,-2.4636,-0.35646,0,20
0.45747,-0.25254,-0.23265,6,5
0.47985,-0.26489,-0.22894,5,6
4.6222,-2.5516,-2.0617,3,7
4.9821,-2.7503,-2.0713,4,8
15.759,-8.6996,0.41793,7,24
4.1901,-2.3131,-1.6172,0,9
4.1652,-2.2993,-1.4846,1,10
14.889,-8.2189,1.1892,1,26
13.931,-7.6904,1.4846,4,27
13.139,-7.253,1.755,0,28
15.697,-8.6652,2.5199,5,29
15.296,-8.4438,2.8705,4,30
4.1778,-2.3062,-0.8991,1,15
17.637,-9.736,3.7956,5,31
4.8837,-2.7138,-0.91793,3,16
4.9149,-2.7311,-0.79022,8,17
4.9869,-2.7711,-0.66717,2,18
4.4506,-2.4731,-0.35604,0,20
0.45517,-0.25293,-0.23184,6,5
0.47265,-0.26264,-0.22586,5,6
4.6216,-2.5681,-2.0646,3,7
4.9612,-2.7569,-2.0658,3,8
15.583,-8.6591,0.41389,1,24
4.2184,-2.3441,-1.6307,0,9
15.099,-8.39,0.80552,2,25
4.1705,-2.3175,-1.4888,2,10
14.878,-8.2673,1.1902,4,26
13.943,-7.7477,1.4881,4,27
19.576,-10.878,2.619,2,28
15.693,-8.7205,2.5232,3,29
15.319,-8.5124,2.8793,7,30
4.2091,-2.3389,-0.90725,0,15
17.762,-9.8702,3.8286,5,31
4.8442,-2.7118,-0.91209,3,16
4.9098,-2.7485,-0.79078,4,17
4.4463,-2.489,-0.35632,0,20
0.46075,-0.25793,-0.23509,6,5
0.47022,-0.26323,-0.22509,5,6
4.5956,-2.5726,-2.0566,2,7
4.9493,-2.7706,-2.0644,3,8
19.912,-11.147,0.52981,3,24
4.1912,-2.3462,-1.623,0,9
15.37,-8.6043,0.82145,6,25
4.1699,-2.3343,-1.4912,1,10
16.971,-9.5005,1.8146,5,27
18.604,-10.415,2.4933,7,28
15.332,-8.5826,2.8867,5,30
4.2052,-2.354,-0.90799,0,15
15.486,-8.6692,3.3438,4,31
4.3758,-2.4656,-0.82519,1,16
4.8762,-2.7476,-0.78661,5,17
4.4063,-2.4828,-0.35367,0,20
0.4648,-0.2619,-0.23753,6,5
5.0458,-2.8432,-0.27009,0,21
0.47591,-0.26816,-0.22817,8,6
4.5933,-2.5882,-2.0588,3,7
4.9415,-2.7844,-2.0644,4,8
17.386,-9.7968,0.46333,6,24
4.211,-2.3728,-1.6332,0,9
15.56,-8.7678,0.83291,9,25
4.1866,-2.359,-1.4995,0,10
13.756,-7.7511,1.4731,2,27
18.597,-10.479,2.4963,4,28
15.526,-8.7483,2.5046,10,29
19.57,-11.027,3.6905,4,30
4.2191,-2.3773,-0.91243,0,15
13.782,-7.7659,2.9806,1,31
4.2449,-2.4085,-0.80185,0,16
4.8473,-2.7503,-0.78327,5,17
4.9396,-2.8027,-0.66415,0,18
4.4423,-2.5205,-0.35715,0,20
0.46084,-0.26148,-0.23591,6,5
5.0287,-2.8532,-0.26962,0,21
0.4719,-0.26775,-0.22663,8,6
4.5921,-2.6055,-2.0617,2,7
4.9202,-2.7916,-2.059,3,8
17.321,-9.8276,0.46236,6,24
4.2188,-2.3937,-1.639,0,9
4.2211,-2.395,-1.5144,0,10
15.406,-8.741,1.2386,6,26
13.728,-7.7889,1.4725,3,27
15.515,-8.8032,2.5071,10,29
17.517,-9.9388,3.3089,4,30
4.2086,-2.3879,-0.91169,0,15
4.2403,-2.4206,-0.80217,0,16
4.8332,-2.7591,-0.78215,5,17
4.7959,-2.7378,-0.6458,3,18
4.4513,-2.541,-0.35841,0,20
0.46016,-0.26268,-0.23591,6,5
4.9726,-2.8386,-0.26702,0,21
0.4696,-0.26807,-0.22586,8,6
4.5707,-2.6092,-2.0551,2,7
4.9177,-2.8073,-2.061,4,8
17.326,-9.8908,0.46319,6,24
4.2553,-2.4292,-1.6556,0,9
15.149,-8.6476,0.81344,4,25
4.1966,-2.3956,-1.5078,0,10
15.528,-8.8644,1.2503,9,26
19.324,-11.031,2.602,2,28
17.675,-10.09,2.8603,8,29
17.472,-9.9739,3.3053,6,30
4.2092,-2.4028,-0.91317,0,15
4.2361,-2.4359,-0.80282,0,16
4.8005,-2.7604,-0.77826,5,17
4.777,-2.7469,-0.6444,4,18
4.4519,-2.56,-0.35911,0,20
0.46091,-0.26504,-0.23672,6,5
4.9689,-2.8572,-0.2673,0,21
0.47355,-0.2723,-0.22817,8,6
4.577,-2.6319,-2.0617,3,7
4.8958,-2.8152,-2.0555,4,8
15.333,-8.8169,0.41065,6,24
4.2887,-2.4661,-1.6717,0,9
15.582,-8.9601,0.83822,2,25
4.2172,-2.425,-1.518,0,10
13.681,-7.8669,1.4723,3,27
19.191,-11.035,2.5888,5,28
15.499,-8.9121,2.5126,5,29
17.442,-10.03,3.3056,6,30
4.2204,-2.4268,-0.91724,0,15
14.118,-8.1181,3.0683,1,31
4.2036,-2.4328,-0.79796,0,16
4.7791,-2.7659,-0.77603,5,17
4.7555,-2.7523,-0.64255,4,18
4.8103,-2.784,-0.51852,0,19
4.4171,-2.5564,-0.35687,0,20
0.45543,-0.26358,-0.23428,5,5
4.9107,-2.8421,-0.26459,0,21
0.47279,-0.27363,-0.22817,8,6
4.56,-2.6391,-2.0573,2,7
4.8831,-2.8261,-2.0535,3,8
17.317,-10.022,0.46454,4,24
4.3113,-2.4952,-1.6832,1,9
14.846,-8.5922,0.79993,4,25
4.2286,-2.4473,-1.5245,0,10
15.106,-8.7425,1.2205,1,26
14.24,-8.2412,1.5349,2,27
14.506,-8.3951,1.9599,2,28
18.359,-10.625,2.9811,6,29
15.431,-8.9307,2.9292,3,30
4.1982,-2.4297,-0.91391,1,15
14.252,-8.2481,3.1024,4,31
4.2459,-2.4741,-0.80736,0,16
4.7623,-2.7751,-0.77464,5,17
4.725,-2.7534,-0.63953,4,18
4.7694,-2.7792,-0.51499,1,19
4.444,-2.5896,-0.35966,0,20
